140.000000 259.000000 -142.094543
144.000000 301.000000 -144.144730
144.000000 333.000000 -144.328506
149.000000 361.000000 -140.842178
149.000000 393.000000 -126.002823
158.000000 425.000000 -97.121254
163.000000 444.000000 -61.136646
181.000000 458.000000 -23.672970
214.000000 471.000000 2.107974
260.000000 462.000000 1.590065
301.000000 444.000000 -17.204851
334.000000 425.000000 -40.051285
357.000000 398.000000 -57.635387
375.000000 365.000000 -64.428093
385.000000 338.000000 -62.358978
394.000000 301.000000 -56.902805
403.000000 264.000000 -51.541142
131.000000 231.000000 -17.082970
140.000000 227.000000 7.858354
154.000000 222.000000 27.185978
172.000000 222.000000 40.315926
186.000000 227.000000 47.858089
251.000000 231.000000 72.117355
269.000000 227.000000 75.826950
288.000000 222.000000 75.562828
311.000000 231.000000 70.367691
334.000000 236.000000 55.627968
218.000000 264.000000 53.112122
209.000000 291.000000 60.989437
204.000000 315.000000 72.659920
204.000000 333.000000 71.992004
195.000000 347.000000 32.963398
200.000000 351.000000 40.499550
214.000000 351.000000 47.010265
228.000000 351.000000 48.904087
237.000000 347.000000 47.849674
154.000000 259.000000 0.093714
158.000000 255.000000 17.818729
177.000000 255.000000 24.480768
191.000000 259.000000 23.878002
177.000000 264.000000 22.538799
163.000000 264.000000 13.345864
260.000000 264.000000 49.912792
274.000000 255.000000 61.182289
288.000000 259.000000 66.144852
306.000000 264.000000 56.311741
292.000000 268.000000 60.900372
274.000000 268.000000 58.273441
172.000000 388.000000 0.391144
181.000000 384.000000 24.256496
200.000000 375.000000 42.488167
209.000000 379.000000 47.415180
218.000000 375.000000 50.035110
241.000000 384.000000 45.438763
269.000000 393.000000 31.184191
246.000000 407.000000 39.089855
228.000000 416.000000 40.997025
209.000000 416.000000 36.929794
195.000000 416.000000 29.785563
181.000000 402.000000 18.194689
177.000000 388.000000 1.669405
200.000000 388.000000 32.781067
214.000000 388.000000 40.540131
228.000000 388.000000 42.473305
264.000000 393.000000 29.983824
228.000000 398.000000 40.241863
214.000000 398.000000 36.977043
200.000000 398.000000 30.199446
